ply
		format ascii 1.0
		element vertex 56883
		property float x
		property float y
		property float z
		property uchar red
		property uchar green
		property uchar blue
		end_header
42181.125000 39180.792969 61771.519531 115 85 104
42701.640625 39499.015625 62273.226562 121 84 100
42956.558594 39569.941406 62385.042969 146 107 122
45308.343750 41563.851562 65528.593750 222 181 193
7410.203125 47213.582031 74102.031250 245 199 202
6137.123535 38016.070312 59666.480469 244 198 201
5147.189941 31022.251953 48689.632812 244 198 202
4506.254395 26444.597656 41504.972656 244 199 203
4241.168945 24250.787109 38061.773438 243 201 206
4301.300781 23979.750000 37636.378906 241 201 208
4334.479004 23575.337891 37001.652344 243 204 213
4394.878418 23334.712891 36623.988281 242 205 216
4482.357422 23245.712891 36484.304688 240 204 219
4574.767578 23185.753906 36390.195312 238 205 220
4672.624023 23155.447266 36342.632812 239 206 223
4773.615234 23141.656250 36320.984375 234 202 219
4875.698242 23133.632812 36308.390625 229 197 214
4976.219238 23118.685547 36284.933594 225 196 212
5075.048828 23096.650391 36250.347656 225 195 214
5174.510742 23078.318359 36221.578125 224 194 213
5275.175781 23065.964844 36202.187500 220 190 209
5376.893066 23058.597656 36190.625000 215 188 206
5479.383301 23054.763672 36184.605469 215 188 206
5582.560059 23053.906250 36183.261719 214 187 205
5686.601074 23056.582031 36187.460938 216 186 205
5790.853027 23060.003906 36192.832031 206 177 193
5895.127930 23063.394531 36198.152344 207 175 192
5999.620117 23067.503906 36204.605469 208 175 190
6104.355469 23072.394531 36212.277344 205 169 185
6208.738281 23075.810547 36217.640625 199 163 178
6312.913086 23078.353516 36221.632812 199 162 177
6417.266113 23081.457031 36226.503906 199 162 177
6523.887695 23092.490234 36243.820312 198 159 174
6630.045898 23101.566406 36258.062500 201 160 174
6726.646484 23077.572266 36220.406250 200 157 171
6825.937012 23063.392578 36198.152344 198 155 167
6929.713379 23064.568359 36199.996094 202 157 167
7035.145020 23071.136719 36210.304688 207 162 170
7141.426758 23080.263672 36224.628906 212 166 172
7254.272949 23110.041016 36271.363281 214 168 172
7382.515137 23187.337891 36392.679688 215 169 173
7524.298828 23304.425781 36576.453125 214 168 172
7534.430664 23016.136719 36123.980469 221 172 177
8009.658691 24137.214844 37883.523438 226 177 182
11507.845703 34216.664062 53703.281250 228 179 184
33384.109375 43032.695312 67540.109375 227 205 212
32583.921875 41759.851562 65542.367188 255 246 255
32588.583984 41527.167969 65177.167969 255 252 255
32652.623047 41372.359375 64934.195312 255 254 255
32719.736328 41223.171875 64700.042969 250 252 255
32785.980469 41074.570312 64466.816406 247 253 255
32896.492188 40982.781250 64322.753906 241 252 255
33020.761719 40909.054688 64207.035156 233 250 255
33119.843750 40805.109375 64043.894531 230 250 255
33197.089844 40675.554688 63840.558594 205 231 251
33278.773438 40552.824219 63647.929688 201 229 255
33379.101562 40454.019531 63492.855469 199 227 255
33479.195312 40356.003906 63339.019531 186 216 255
33552.046875 40226.378906 63135.574219 176 207 255
33604.968750 40074.375000 62897.000000 182 216 255
33645.367188 39909.132812 62637.656250 172 207 255
33682.089844 39741.300781 62374.242188 167 202 250
33725.667969 39583.281250 62126.226562 163 201 246
33745.257812 39398.914062 61836.859375 164 205 254
33771.320312 39223.984375 61562.304688 135 183 232
33809.562500 39064.933594 61312.675781 99 147 196
33853.191406 38913.722656 61075.347656 79 127 174
33908.289062 38777.171875 60861.035156 83 131 178
33969.613281 38649.097656 60660.019531 97 145 192
34043.070312 38536.062500 60482.609375 85 133 182
34133.175781 38442.917969 60336.417969 87 134 186
34240.207031 38369.679688 60221.468750 70 117 170
34361.222656 38312.761719 60132.136719 54 101 156
34485.605469 38260.152344 60049.566406 54 99 154
34615.246094 38213.859375 59976.910156 52 97 152
34749.707031 38173.324219 59913.289062 55 98 152
34889.726562 38139.261719 59859.824219 53 96 149
35038.492188 38115.042969 59821.812500 59 100 151
35185.488281 38089.144531 59781.171875 68 109 158
35330.335938 38061.183594 59737.281250 66 103 153
35476.519531 38034.921875 59696.066406 63 97 145
35628.070312 38014.640625 59664.234375 80 107 155
35784.574219 37999.812500 59640.957031 85 109 155
35948.714844 37993.191406 59630.566406 81 99 143
36121.218750 37995.433594 59634.085938 69 82 123
36299.753906 38003.964844 59647.480469 45 51 92
36483.062500 38017.398438 59668.558594 50 53 90
36673.343750 38037.933594 59700.792969 51 52 87
36865.070312 38059.769531 59735.066406 48 47 82
37060.164062 38084.867188 59774.457031 50 47 82
37257.925781 38112.464844 59817.769531 51 46 79
37456.292969 38140.425781 59861.656250 51 44 78
37654.246094 38167.710938 59904.480469 52 43 77
37852.269531 38194.824219 59947.031250 52 41 76
38051.441406 38222.843750 59991.011719 51 40 75
38248.351562 38248.351562 60031.046875 53 40 73
38440.750000 38269.140625 60063.671875 53 40 71
38631.656250 38288.265625 60093.687500 54 40 71
38822.808594 38307.460938 60123.820312 55 41 72
39020.265625 38332.683594 60163.406250 55 41 72
39225.906250 38365.687500 60215.203125 55 41 70
39436.796875 38403.519531 60274.582031 55 41 72
39649.718750 38442.988281 60336.531250 54 41 72
39870.074219 38489.292969 60409.203125 54 41 72
40105.765625 38549.937500 60504.386719 52 42 72
40356.773438 38624.722656 60621.765625 59 46 77
40613.613281 38704.425781 60746.859375 57 44 75
40864.222656 38777.539062 60861.609375 61 44 74
41158.765625 38891.542969 61040.542969 73 54 80
41513.769531 39061.480469 61307.257812 80 60 85
41923.031250 39280.824219 61651.515625 93 71 92
42381.652344 39544.386719 62065.183594 118 88 107
42901.265625 39862.425781 62564.347656 119 82 98
43264.414062 40033.046875 62832.136719 145 106 121
44720.531250 41209.414062 64678.457031 218 177 189
7121.853516 48342.277344 75534.812500 242 196 202
5732.930176 37769.890625 59015.457031 243 198 202
5070.750000 32452.800781 50707.500000 244 199 202
4624.518555 28774.783203 44960.597656 243 199 199
4306.782715 26073.496094 40739.835938 243 199 199
4173.687988 24602.791016 38441.859375 242 198 196
4215.250488 24210.669922 37829.171875 242 198 198
4289.119141 24019.068359 37529.792969 245 200 203
4333.822754 23677.470703 36996.046875 244 202 207
4395.204102 23441.087891 36626.699219 244 205 214
4480.414062 23339.830078 36468.484375 241 206 218
4572.385742 23277.601562 36371.250000 235 203 218
4669.513184 23243.800781 36318.437500 231 204 222
4769.548828 23225.628906 36290.046875 227 204 223
4871.637695 23218.017578 36278.152344 224 198 220
4972.593262 23205.435547 36258.492188 226 200 224
5071.320801 23183.179688 36223.718750 225 197 222
5170.654297 23164.531250 36194.582031 222 194 217
5271.482910 23153.179688 36176.843750 220 190 213
5373.523926 23147.488281 36167.949219 217 187 208
5476.307129 23145.146484 36164.292969 216 186 207
5579.722656 23145.515625 36164.867188 215 185 206
5684.156250 23150.017578 36171.902344 216 186 209
5788.609375 23154.437500 36178.808594 214 186 209
5892.962402 23158.308594 36184.855469 206 176 199
5997.756836 23163.751953 36193.363281 200 170 191
6103.084961 23171.035156 36204.742188 202 170 189
6207.860840 23176.013672 36212.523438 202 169 186
6312.734375 23181.189453 36220.609375 197 161 177
6418.603027 23189.791016 36234.046875 196 159 174
6525.591797 23202.103516 36253.285156 200 161 176
6632.601074 23214.103516 36272.039062 199 160 175
6738.608887 23222.283203 36284.816406 199 158 174
6834.110352 23194.556641 36241.496094 198 157 171
6933.243652 23179.798828 36218.437500 201 158 170
7037.778809 23183.271484 36223.859375 205 160 168
7143.420898 23190.236328 36234.742188 209 163 169
7253.464844 23211.087891 36267.324219 212 166 170
7371.844238 23257.648438 36340.078125 215 166 171
7503.244141 23343.425781 36474.101562 220 172 175
7611.807617 23356.779297 36494.968750 218 170 173
7879.214355 23850.593750 37266.554688 216 170 173
8731.966797 26079.474609 40749.179688 221 175 179
15065.408203 44403.308594 69380.171875 229 183 187
36311.613281 47289.542969 73889.914062 226 209 219
32179.718750 41666.226562 65103.476562 253 242 252
32540.392578 41891.082031 65454.812500 255 253 255
32526.802734 41634.308594 65053.605469 254 251 255
32596.998047 41487.085938 64823.574219 254 253 255
32687.328125 41367.015625 64635.960938 251 253 255
32779.664062 41250.812500 64454.394531 247 253 255
32891.453125 41160.253906 64312.898438 242 251 255
33013.425781 41083.375000 64192.773438 233 248 255
33108.175781 40973.656250 64021.335938 225 244 255
33182.605469 40840.128906 63812.703125 213 237 255
33261.921875 40714.042969 63615.695312 204 232 255
33360.867188 40613.230469 63458.171875 197 228 255
33466.906250 40522.093750 63315.769531 192 223 255
33555.703125 40411.167969 63142.449219 183 215 255
33631.707031 40286.109375 62947.042969 179 211 255
33694.605469 40146.765625 62729.320312 179 210 255
33749.929688 39999.917969 62499.871094 179 210 255
33813.328125 39864.132812 62287.707031 176 207 254
33855.023438 39704.320312 62038.000000 175 202 250
33875.835938 39521.808594 61752.824219 165 191 239
33912.656250 39359.765625 61499.636719 140 171 220
33979.019531 39233.507812 61302.359375 116 156 205
34032.234375 39093.441406 61083.500000 69 114 164
34082.652344 38951.601562 60861.875000 63 117 165
34141.171875 38820.417969 60656.902344 64 119 169
34217.183594 38710.351562 60484.921875 58 117 167
34312.882812 38623.546875 60349.289062 59 114 165
34425.476562 38556.531250 60244.582031 63 114 166
34543.925781 38496.714844 60151.117188 66 113 166
34669.796875 38445.714844 60071.429688 66 109 162
34802.503906 38402.765625 60004.320312 67 107 160
34942.269531 38367.984375 59949.976562 52 89 141
35091.140625 38343.492188 59911.707031 62 97 149
35238.320312 38317.398438 59870.933594 66 101 151
35383.355469 38289.234375 59826.925781 61 96 148
35529.226562 38262.242188 59784.753906 71 106 158
35680.011719 38240.777344 59751.214844 69 100 151
35836.332031 38225.421875 59727.222656 76 103 153
35999.941406 38217.945312 59715.539062 76 97 144
36171.937500 38219.406250 59717.820312 57 73 118
36350.382812 38227.632812 59730.679688 47 57 99
36533.847656 38241.039062 59751.621094 48 55 93
36723.710938 38260.984375 59782.789062 50 50 88
36917.394531 38284.703125 59819.851562 53 50 85
37116.238281 38313.535156 59864.898438 52 47 80
37316.191406 38343.242188 59911.316406 50 43 75
37513.742188 38370.222656 59953.472656 50 43 75
37710.796875 38396.449219 59994.449219 51 44 76
37907.777344 38422.363281 60034.941406 50 43 75
38105.542969 38448.835938 60076.304688 50 43 75
38301.066406 38472.820312 60113.777344 53 42 77
38492.472656 38492.472656 60144.488281 58 45 80
38682.625000 38510.699219 60172.968750 54 41 76
38872.085938 38528.085938 60200.132812 51 38 71
39069.156250 38552.824219 60238.789062 52 39 70
39276.015625 38586.964844 60292.128906 54 41 70
39488.882812 38626.679688 60354.191406 55 42 71
39704.328125 38668.562500 60419.628906 53 43 71
39934.632812 38724.492188 60507.019531 52 42 70
40183.687500 38798.042969 60621.945312 56 46 74
40438.621094 38876.613281 60744.707031 58 45 72
40697.386719 38958.183594 60872.160156 60 46 71
40982.851562 39064.507812 61038.292969 68 49 74
41303.085938 39202.925781 61254.574219 80 58 81
41683.382812 39396.953125 61557.738281 95 69 91
42110.375000 39633.292969 61927.023438 110 80 99
42569.332031 39897.617188 62340.027344 122 86 104
43075.726562 40204.011719 62818.765625 126 87 102
43546.558594 40474.812500 63241.890625 145 104 118
44110.042969 40829.132812 63795.519531 222 179 191
5870.050781 41273.792969 64203.679688 239 192 201
4805.159668 32762.453125 50963.816406 240 194 200
4210.214844 27861.714844 43340.445312 240 195 199
4057.262207 26082.400391 40572.621094 241 196 199
4059.672607 25372.953125 39469.039062 240 196 196
4090.195557 24872.810547 38691.039062 240 196 196
4128.245605 24443.560547 38023.316406 239 195 193
4201.044922 24236.798828 37701.687500 239 195 195
4273.857910 24040.451172 37396.257812 244 199 202
4330.760742 23766.369141 36969.910156 244 202 207
4395.120605 23545.289062 36626.007812 245 206 215
4476.486328 23423.476562 36436.519531 243 208 220
4568.591797 23362.117188 36341.070312 236 204 219
4664.918945 23324.593750 36282.703125 231 204 222
4764.515625 23304.695312 36251.746094 227 204 223
4866.150391 23295.400391 36237.289062 225 199 221
4967.296387 23284.203125 36219.871094 224 198 222
5066.949219 23266.603516 36192.492188 223 195 220
5166.413086 23248.859375 36164.890625 220 192 215
5267.199219 23237.644531 36147.445312 220 190 213
5369.271973 23232.425781 36139.328125 218 188 209
5472.240723 23231.210938 36137.437500 218 188 209
5575.845703 23232.691406 36139.742188 217 187 208
5680.291504 23237.554688 36147.308594 217 187 210
5785.084961 23243.644531 36156.781250 210 182 205
5889.943848 23249.777344 36166.320312 204 174 197
5995.161621 23257.093750 36177.699219 199 169 190
6100.937500 23266.287109 36192.000000 201 169 188
6206.701660 23275.130859 36205.757812 201 168 185
6312.169434 23282.591797 36217.367188 199 163 179
6418.726074 23293.763672 36234.742188 198 161 176
6526.976562 23310.630859 36260.980469 201 162 177
6635.217773 23326.937500 36286.347656 198 159 174
6740.534180 23332.617188 36295.183594 199 158 174
6845.573242 23337.181641 36302.281250 198 157 171
6942.418945 23314.093750 36266.367188 198 155 167
7039.147461 23291.296875 36230.906250 200 155 163
7145.032227 23299.017578 36242.917969 204 158 164
7253.562500 23315.021484 36267.812500 210 164 168
7365.708496 23342.035156 36309.832031 216 167 172
7493.811523 23418.160156 36428.250000 218 170 173
7630.690430 23519.251953 36585.500000 218 170 173
7777.727539 23648.496094 36786.546875 218 172 175
7887.182617 23661.548828 36806.851562 223 177 181
10767.848633 31878.500000 49588.777344 230 184 188
36875.210938 48520.015625 75475.578125 233 208 216
32770.121094 42867.894531 66683.390625 250 233 243
32421.550781 42166.757812 65592.734375 255 251 255
32463.572266 41978.757812 65300.289062 255 253 255
32524.605469 41817.347656 65049.210938 254 251 255
32581.267578 41652.187500 64792.292969 255 254 255
32663.089844 41520.875000 64588.031250 250 252 255
32769.160156 41421.691406 64433.746094 245 251 255
32881.996094 41332.121094 64294.410156 242 251 255
32993.843750 41242.308594 64154.699219 234 249 255
33084.714844 41127.410156 63975.968750 223 242 255
33164.117188 40999.593750 63777.148438 211 235 255
33245.945312 40876.160156 63585.140625 203 231 255
33338.000000 40766.574219 63414.671875 198 229 255
33438.281250 40668.183594 63261.617188 193 224 255
33538.550781 40570.824219 63110.171875 185 217 255
33633.945312 40468.652344 62951.234375 179 211 255
33718.503906 40354.593750 62773.812500 179 210 255
33796.003906 40233.335938 62585.187500 181 212 255
33880.054688 40121.121094 62410.628906 182 213 255
33942.625000 39984.769531 62198.527344 183 210 255
33985.632812 39826.914062 61952.972656 173 199 247
34024.929688 39666.371094 61703.242188 156 187 236
34079.195312 39524.839844 61483.085938 139 179 228
34156.183594 39410.980469 61305.968750 99 144 194
34209.445312 39271.046875 61088.292969 64 118 166
34253.468750 39121.980469 60856.417969 46 101 151
34310.875000 38989.632812 60650.539062 42 101 151
34392.894531 38886.441406 60490.019531 66 121 172
34491.160156 38802.554688 60359.531250 74 125 177
34600.757812 38732.191406 60250.078125 70 117 170
34721.042969 38674.429688 60160.222656 84 127 180
34850.359375 38627.246094 60086.828125 78 118 171
34989.128906 38590.953125 60030.371094 61 98 150
35139.566406 38567.816406 59994.382812 59 94 146
35287.871094 38542.578125 59955.125000 62 97 147
35434.906250 38516.199219 59914.089844 68 103 155
35582.726562 38490.929688 59874.781250 64 99 151
35734.355469 38470.000000 59842.222656 64 95 146
35891.390625 38455.062500 59818.984375 72 99 149
36055.269531 38447.562500 59807.320312 70 91 138
36227.007812 38448.476562 59808.742188 53 69 114
36405.324219 38456.328125 59820.953125 47 57 99
36589.062500 38469.808594 59841.925781 50 57 95
36778.933594 38489.582031 59872.683594 52 52 90
36971.878906 38512.375000 59908.140625 53 50 85
37171.398438 38541.769531 59953.867188 51 46 79
37372.894531 38572.941406 60002.351562 50 43 75
37570.757812 38600.093750 60044.589844 50 43 75
37766.222656 38624.546875 60082.628906 50 43 75
37961.613281 38648.699219 60120.199219 50 43 75
38157.769531 38673.417969 60158.648438 50 43 75
38352.042969 38696.007812 60193.792969 53 42 77
38542.531250 38714.593750 60222.703125 52 39 74
38731.394531 38731.394531 60248.835938 53 40 75
38919.429688 38747.222656 60273.453125 55 42 75
39114.785156 38770.160156 60309.140625 56 43 74
39320.558594 38803.179688 60360.503906 55 42 71
39534.042969 38843.492188 60423.207031 53 40 69
39751.613281 38887.445312 60491.582031 51 41 69
39990.132812 38951.429688 60591.113281 53 43 71
40252.382812 39037.871094 60725.574219 55 45 73
40519.808594 39128.570312 60866.664062 56 43 70
40793.339844 39224.363281 61015.679688 60 46 71
41111.570312 39362.140625 61229.996094 74 55 80
41455.527344 39523.277344 61480.652344 90 68 91
41851.707031 39732.632812 61806.320312 105 79 101
42282.066406 39972.539062 62179.507812 114 84 103
42727.472656 40224.609375 62571.613281 121 85 103
43204.656250 40504.363281 63006.789062 125 86 101
43709.984375 40808.078125 63479.234375 143 102 116
43851.851562 40771.347656 63422.097656 222 179 191
5466.107910 41178.015625 63771.261719 242 197 201
4508.932617 32871.570312 50907.300781 241 196 202
4001.831055 28262.931641 43770.027344 240 195 201
3795.512695 25993.511719 40255.437500 240 195 199
3737.761230 24845.117188 38476.953125 239 197 199
3793.095215 24492.558594 37930.953125 239 197 199
3893.185303 24440.552734 37850.410156 238 196 196
3997.234619 24415.541016 37811.679688 237 195 195
4088.528809 24315.986328 37657.500000 237 195 195
4175.376953 24195.773438 37471.328125 238 196 198
4256.061035 24046.746094 37240.535156 240 198 201
4325.756836 23844.416016 36927.191406 240 200 207
4393.766602 23642.648438 36614.718750 243 206 217
4472.652344 23507.429688 36405.312500 242 209 224
4564.769043 23446.312500 36310.660156 235 205 224
4660.251953 23404.820312 36246.406250 230 204 226
4759.147461 23381.898438 36210.906250 226 204 227
4860.326172 23370.929688 36193.917969 224 200 222
4961.508301 23360.433594 36177.664062 221 198 217
5061.517090 23344.957031 36153.695312 221 195 215
5160.958496 23327.533203 36126.710938 218 191 209
5261.718750 23316.634766 36109.832031 218 188 207
5363.615234 23311.097656 36101.257812 217 187 206
5466.386230 23309.496094 36098.777344 217 187 206
5569.901367 23311.068359 36101.210938 214 187 205
5674.207520 23315.833984 36108.593750 214 187 207
5778.922852 23322.082031 36118.269531 206 178 201
5884.193359 23330.310547 36131.011719 202 174 197
5990.065430 23340.599609 36146.945312 197 169 192
6096.409668 23352.347656 36165.140625 198 168 189
6202.990723 23364.599609 36184.113281 200 168 187
6309.481934 23376.113281 36201.945312 201 165 183
6416.743164 23390.064453 36223.550781 199 162 178
6525.667969 23409.539062 36253.710938 199 160 175
6634.804688 23429.154297 36284.089844 197 158 171
6740.527832 23436.296875 36295.152344 199 158 172
6846.634766 23444.537109 36307.914062 198 157 169
6949.721191 23442.341797 36304.511719 197 154 164
7046.714355 23419.962891 36269.851562 194 151 159
7143.339355 23397.023438 36234.328125 199 154 160
7252.924805 23416.585938 36264.625000 207 161 165
7362.726074 23436.283203 36295.128906 215 169 173
7485.076172 23494.822266 36385.785156 214 168 171
7623.803711 23602.460938 36552.484375 215 169 172
7761.979980 23705.505859 36712.066406 218 172 175
7837.968750 23618.414062 36577.187500 223 177 180
8560.982422 25457.656250 39425.574219 226 180 183
13816.915039 40553.542969 62804.156250 227 181 185
36191.605469 48113.546875 74512.125000 237 220 230
32969.628906 43573.898438 67481.703125 253 242 252
32205.716797 42316.812500 65534.890625 255 254 255
32379.052734 42298.648438 65506.753906 252 254 255
32396.990234 42078.847656 65166.359375 246 253 255
32476.593750 41941.203125 64953.187500 248 254 255
32549.697266 41796.769531 64729.511719 249 255 255
32642.785156 41679.488281 64547.882812 244 251 255
32750.533203 41582.136719 64397.113281 241 251 255
32855.058594 41481.804688 64241.730469 238 251 255
32956.812500 41379.109375 64082.695312 232 249 255
33046.902344 41262.980469 63902.847656 220 240 255
33131.722656 41141.589844 63714.851562 209 233 253
33221.054688 41027.093750 63537.535156 203 228 255
33318.929688 40924.339844 63378.402344 201 230 255
33421.007812 40827.824219 63228.933594 198 226 255
33521.828125 40730.820312 63078.707031 189 219 255
33625.265625 40638.023438 62934.988281 183 213 255
33726.933594 40544.078125 62789.503906 180 210 255
33824.964844 40446.781250 62638.820312 183 210 255
33928.472656 40357.027344 62499.820312 183 210 255
34009.199219 40241.253906 62320.523438 183 210 255
34069.976562 40103.199219 62106.726562 177 204 252
34122.625000 39957.066406 61880.410156 175 206 253
34180.484375 39818.503906 61665.824219 175 210 255
34248.742188 39693.414062 61472.101562 152 192 239
34319.070312 39571.988281 61284.050781 111 156 204
34377.671875 39438.343750 61077.082031 77 125 174
34431.050781 39300.089844 60862.968750 55 107 155
34497.308594 39177.847656 60673.656250 71 121 170
34583.156250 39078.968750 60520.523438 78 126 175
34679.460938 38992.828125 60387.121094 65 109 159
34788.511719 38921.800781 60277.125000 85 126 177
34909.308594 38864.550781 60188.464844 74 114 165
35041.996094 38821.031250 60121.070312 64 101 151
35189.933594 38794.753906 60080.375000 58 93 143
35337.453125 38768.273438 60039.359375 52 87 137
35484.917969 38741.988281 59998.652344 56 91 141
35633.769531 38717.460938 59960.667969 63 98 148
35786.582031 38697.453125 59929.683594 65 96 145
35944.640625 38683.277344 59907.730469 69 96 144
36109.097656 38676.097656 59896.609375 65 86 131
36280.933594 38676.843750 59897.765625 49 67 109
36459.207031 38684.417969 59909.500000 45 58 99
36642.925781 38697.671875 59930.023438 50 57 95
36832.296875 38716.738281 59959.550781 49 52 89
37024.511719 38738.609375 59993.421875 50 49 84
37223.648438 38767.488281 60038.144531 49 46 79
37424.769531 38798.156250 60085.640625 48 43 74
37621.753906 38824.273438 60126.089844 48 43 74
37816.179688 38847.531250 60162.105469 49 44 75
38010.027344 38869.984375 60196.878906 48 43 74
38204.703125 38893.078125 60232.644531 48 43 74
38398.304688 38914.871094 60266.394531 50 43 77
38589.042969 38933.585938 60295.378906 49 42 76
38778.425781 38950.777344 60321.996094 50 41 75
38969.796875 38969.796875 60351.453125 50 41 73
39168.582031 38996.035156 60392.089844 50 40 70
39375.976562 39030.574219 60445.578125 49 39 67
39592.156250 39073.480469 60512.027344 49 39 67
39819.480469 39126.968750 60594.863281 50 41 67
40075.687500 39208.250000 60720.738281 54 44 70
40347.417969 39303.949219 60868.949219 51 41 67
40621.234375 39400.855469 61019.023438 58 44 71
40910.140625 39511.503906 61190.382812 69 53 78
41248.996094 39669.250000 61434.675781 86 63 89
41610.371094 39847.218750 61710.296875 101 75 97
42019.785156 40069.500000 62054.535156 112 82 103
42455.082031 40314.488281 62433.945312 117 85 102
42891.730469 40558.707031 62812.160156 121 84 100
43343.000000 40814.660156 63208.542969 128 87 101
43871.269531 41140.691406 63713.460938 146 103 115
43685.371094 40797.082031 63181.324219 222 179 189
53822.660156 50057.289062 77522.351562 232 187 195
5389.236816 45309.511719 69860.476562 239 194 198
4365.452148 35391.343750 54568.152344 240 195 199
3866.196045 30262.982422 46660.988281 242 197 201
3678.183594 27831.589844 42912.140625 243 198 202
3511.252441 25711.427734 39643.171875 244 199 205
3456.776367 24521.507812 37808.492188 243 198 204
3518.348633 24201.972656 37315.816406 242 197 201
3636.062988 24276.068359 37430.062500 240 198 200
3750.611816 24325.396484 37506.117188 239 197 199
3856.932373 24320.101562 37497.953125 238 196 196
3958.544434 24286.205078 37445.691406 238 196 196
4055.992188 24229.216797 37357.824219 238 196 196
4148.132324 24144.257812 37226.828125 238 196 198
4235.746582 24037.861328 37062.781250 237 195 198
4313.662109 23882.957031 36823.945312 237 197 204
4388.048340 23716.355469 36567.066406 240 203 214
4468.974121 23592.025391 36375.371094 240 207 222
4559.907227 23524.976562 36271.992188 236 206 225
4654.660156 23480.173828 36202.914062 232 206 228
4752.824707 23454.158203 36162.796875 227 205 228
4853.570801 23441.714844 36143.613281 223 199 221
4954.703125 23431.617188 36128.042969 221 198 217
5054.832520 23417.287109 36105.949219 221 195 215
5154.339844 23400.703125 36080.378906 219 192 210
5255.063477 23390.185547 36064.164062 217 187 206
5356.826660 23384.607422 36055.562500 214 184 203
5459.391602 23382.677734 36052.585938 213 183 202
5562.704102 23383.960938 36054.566406 210 183 201
5666.908203 23388.875000 36062.140625 209 182 202
5771.773438 23396.294922 36073.582031 205 177 200
5877.513672 23406.939453 36089.996094 203 175 198
5984.142578 23420.695312 36111.207031 200 172 195
6091.359863 23436.248047 36135.183594 198 168 189
6198.736816 23451.888672 36159.300781 199 167 186
6306.152832 23467.160156 36182.843750 201 165 183
6414.349121 23484.794922 36210.035156 198 161 177
6524.047852 23507.283203 36244.710938 196 157 172
6633.904785 23529.630859 36279.167969 198 159 172
6740.708008 23540.626953 36296.121094 198 157 171
6847.269531 23550.457031 36311.277344 197 156 168
6953.799316 23559.886719 36325.816406 196 153 163
7056.283691 23555.535156 36319.105469 194 151 159
7154.321777 23536.681641 36290.039062 198 153 159
7254.992188 23526.904297 36274.960938 207 161 165
7362.628418 23539.671875 36294.648438 215 169 173
7480.685059 23584.937500 36364.441406 213 167 170
7611.140625 23667.519531 36491.769531 215 169 172
7755.509277 23790.548828 36681.460938 217 171 174
7912.707031 23949.126953 36925.964844 219 173 176
7822.902344 23365.773438 36026.523438 221 175 178
10356.774414 30532.308594 47076.246094 223 177 181
33861.757812 45482.949219 70127.898438 248 225 235
32174.511719 42962.437500 66241.640625 255 247 255
32077.921875 42582.972656 65656.562500 255 252 255
32267.855469 42586.062500 65661.335938 255 252 255
32278.886719 42354.378906 65304.105469 248 250 255
32335.621094 42184.976562 65042.917969 245 252 255
32421.609375 42055.460938 64843.218750 248 254 255
32513.921875 41935.570312 64658.367188 246 252 255
32611.791016 41824.160156 64486.593750 244 251 255
32710.804688 41715.464844 64319.000000 240 250 255
32809.933594 41608.128906 64153.500000 236 249 255
32913.605469 41507.714844 63998.675781 230 247 255
33007.464844 41396.101562 63826.585938 222 242 255
33098.437500 41282.117188 63650.839844 211 235 255
33196.281250 41177.902344 63490.156250 202 227 255
33302.984375 41085.746094 63348.066406 197 226 255
33410.644531 40995.765625 63209.328125 195 223 255
33516.484375 40904.527344 63068.656250 189 219 255
33623.933594 40816.218750 62932.496094 185 215 255
33728.542969 40725.421875 62792.500000 182 212 255
33832.167969 40634.406250 62652.164062 182 209 255
33950.542969 40561.964844 62540.476562 179 206 254
34049.265625 40466.925781 62393.941406 176 203 251
34129.433594 40350.945312 62215.113281 173 200 248
34202.250000 40227.515625 62024.804688 172 203 250
34276.824219 40107.417969 61839.632812 176 211 255
34349.621094 39986.480469 61653.164062 164 204 251
34422.925781 39867.371094 61469.511719 146 191 239
34496.281250 39749.523438 61287.812500 116 164 213
34568.457031 39631.515625 61105.863281 75 127 175
34639.324219 39513.199219 60923.437500 59 109 158
34709.902344 39395.738281 60742.324219 42 90 139
34788.546875 39288.554688 60577.070312 42 86 136
34880.117188 39196.964844 60435.847656 66 107 158
34987.273438 39123.699219 60322.886719 69 109 160
35110.812500 39069.382812 60239.136719 62 99 149
35251.699219 39034.808594 60185.828125 58 93 143
35396.207031 39004.558594 60139.183594 58 93 143
35543.359375 38977.500000 60097.468750 60 95 145
35692.613281 38952.996094 60059.687500 61 96 146
35845.781250 38932.980469 60028.824219 64 95 144
36005.035156 38919.730469 60008.394531 64 91 139
36169.800781 38912.531250 59997.296875 57 78 123
36341.105469 38912.410156 59997.105469 46 64 106
36518.558594 38918.835938 60007.019531 45 58 99
36701.281250 38930.800781 60025.460938 49 56 94
36888.785156 38947.695312 60051.511719 46 49 86
37079.097656 38967.382812 60081.871094 48 47 82
37276.843750 38994.671875 60123.941406 47 44 77
37475.824219 39022.992188 60167.605469 47 42 73
37669.820312 39045.886719 60202.910156 47 42 73
37863.281250 39068.019531 60237.035156 47 42 73
38055.468750 39088.648438 60268.843750 47 42 73
38248.382812 39109.835938 60301.507812 46 41 72
38441.507812 39131.042969 60334.207031 48 41 75
38633.628906 39151.046875 60365.046875 51 44 78
38825.066406 39170.175781 60394.546875 50 41 75
39022.359375 39195.023438 60432.855469 47 38 70
39225.695312 39225.695312 60480.144531 48 38 68
39438.253906 39265.277344 60541.179688 49 39 67
39665.457031 39319.031250 60624.058594 50 40 68
39910.226562 39389.656250 60732.953125 49 40 66
40189.175781 39493.257812 60892.687500 51 41 67
40481.457031 39609.011719 61071.160156 48 38 64
40770.945312 39721.050781 61243.910156 62 48 75
41071.078125 39842.457031 61431.101562 80 64 89
41414.582031 40004.722656 61681.292969 96 73 99
41776.609375 40183.433594 61956.839844 105 79 101
42185.308594 40405.335938 62298.976562 112 82 103
42613.066406 40643.554688 62666.273438 119 87 104
43030.011719 40869.507812 63014.660156 128 91 107
43453.304688 41099.585938 63369.402344 133 92 106
43996.960938 41441.121094 63896.000000 147 104 116
43513.117188 40816.023438 62932.195312 216 173 183
52726.066406 49254.390625 75942.890625 233 188 196
5093.570312 50492.785156 77510.851562 239 197 200
4436.398926 42145.789062 64697.484375 238 196 199
3995.864502 36442.285156 55942.101562 238 196 199
3623.557129 31775.810547 48778.656250 238 196 199
3325.455078 28081.621094 43107.753906 239 197 200
3135.057861 25528.328125 39188.222656 240 198 201
3079.653320 24212.447266 37168.230469 241 199 202
3170.005859 24092.042969 36983.402344 241 199 202
3292.922852 24218.916016 37178.160156 241 199 202
3416.909424 24345.480469 37372.449219 239 197 200
3526.313232 24363.619141 37400.292969 238 196 199
3629.229492 24337.187500 37359.714844 235 195 197
3728.077393 24285.761719 37280.773438 234 194 196
3827.445068 24240.486328 37211.269531 234 195 194
3927.444824 24201.552734 37151.507812 234 194 196
4026.791260 24160.746094 37088.867188 234 194 196
4123.076172 24104.138672 37001.964844 234 194 197
4214.797852 24024.349609 36879.484375 233 193 198
4297.943848 23900.761719 36689.765625 231 192 201
4378.922363 23771.292969 36491.019531 233 198 210
4464.252930 23670.921875 36336.941406 236 204 221
4555.359863 23605.046875 36235.816406 234 207 227
4649.268555 23556.294922 36160.980469 231 207 229
4746.838379 23527.808594 36117.250000 226 206 229
4847.356934 23514.837891 36097.339844 222 200 221
4948.352539 23504.675781 36081.738281 220 198 217
5048.305664 23490.074219 36059.324219 220 197 216
5148.109375 23475.378906 36036.765625 219 193 211
5248.876953 23465.568359 36021.707031 216 189 207
5350.687012 23460.703125 36014.238281 211 184 202
5453.270996 23459.353516 36012.167969 208 181 201
5556.497070 23460.765625 36014.332031 207 180 200
5660.672852 23466.062500 36022.464844 207 179 202
5765.869629 23475.326172 36036.683594 204 178 200
5872.072754 23488.291016 36056.585938 203 177 199
5979.352539 23505.041016 36082.300781 200 174 196
6087.440430 23524.345703 36111.933594 199 169 192
6195.587402 23543.232422 36140.925781 199 167 188
6303.843750 23561.908203 36169.597656 199 165 185
6412.954590 23583.123047 36202.164062 197 161 179
6523.413574 23608.544922 36241.187500 193 156 172
6633.866211 23633.148438 36278.957031 195 158 171
6741.531250 23647.216797 36300.554688 195 156 169
6849.116211 23660.583984 36321.070312 194 155 166
6955.240234 23668.578125 36333.343750 194 154 163
7061.396973 23676.449219 36345.425781 196 153 161
7166.302734 23679.957031 36350.808594 199 154 160
7262.913086 23656.345703 36314.566406 205 160 164
7364.780273 23650.279297 36305.253906 212 166 170
7477.860352 23679.890625 36350.710938 212 166 169
7601.979980 23743.169922 36447.847656 214 168 171
7736.205078 23835.875000 36590.160156 216 170 173
7885.518555 23971.976562 36799.085938 218 172 175
7848.676270 23546.029297 36145.218750 219 173 176
8879.623047 26292.910156 40361.925781 222 176 179
13706.314453 40064.609375 61502.691406 224 179 182
34964.148438 47735.484375 73278.156250 239 220 234
31450.308594 42682.562500 65521.476562 255 243 255
31658.591797 42711.000000 65565.132812 255 250 255
31975.318359 42884.546875 65831.539062 255 252 255
32083.392578 42777.855469 65667.757812 251 248 255
32132.453125 42594.183594 65385.808594 246 248 255
32194.451172 42429.679688 65133.281250 249 252 255
32274.691406 42290.976562 64920.359375 248 255 255
32374.773438 42179.703125 64749.546875 244 254 255
32476.193359 42071.433594 64583.339844 239 250 255
32570.964844 41955.816406 64405.859375 239 252 255
32663.560547 41838.718750 64226.101562 236 252 255
32764.115234 41733.062500 64063.910156 230 247 255
32874.496094 41641.027344 63922.628906 227 246 255
32974.355469 41536.757812 63762.566406 226 246 255
33072.023438 41430.882812 63600.042969 215 239 255
33176.531250 41334.695312 63452.382812 203 228 255
33289.128906 41249.570312 63321.710938 193 220 254
33403.011719 41166.953125 63194.882812 192 219 255
33517.312500 41085.738281 63070.210938 190 217 255
33629.382812 41002.671875 62942.695312 188 214 255
33734.671875 40912.261719 62803.910156 188 214 255
33839.558594 40822.324219 62665.851562 186 212 255
33961.976562 40754.371094 62561.531250 181 207 253
34070.570312 40670.628906 62432.984375 176 202 248
34168.488281 40575.078125 62286.304688 177 205 250
34262.089844 40475.421875 62133.320312 172 200 245
34355.816406 40376.937500 61982.140625 172 202 247
34448.968750 40278.796875 61831.484375 164 196 240
34525.113281 40161.863281 61651.984375 174 208 252
34602.167969 40047.179688 61475.933594 161 197 240
34688.820312 39944.703125 61318.625000 138 176 219
34776.718750 39844.683594 61165.085938 118 156 201
34852.058594 39731.347656 60991.101562 58 98 143
34921.351562 39612.281250 60808.324219 48 88 135
34995.281250 39499.625000 60635.390625 44 84 131
35086.050781 39406.992188 60493.187500 63 101 148
35198.578125 39339.585938 60389.714844 56 91 139
35329.742188 39293.566406 60319.070312 49 82 133
35468.527344 39256.425781 60262.058594 52 85 136
35612.976562 39225.886719 60215.175781 48 81 132
35760.679688 39199.203125 60174.218750 52 86 134
35912.664062 39177.453125 60140.828125 54 84 131
36072.058594 39163.949219 60120.097656 51 79 124
36236.062500 39155.558594 60107.214844 46 67 112
36405.703125 39153.304688 60103.757812 42 60 102
36580.949219 39157.070312 60109.539062 46 59 98
36761.152344 39166.089844 60123.378906 48 55 91
36945.523438 39179.437500 60143.875000 45 48 83
37132.457031 39195.371094 60168.332031 46 45 78
37327.085938 39219.242188 60204.976562 46 43 76
37524.785156 39246.109375 60246.218750 44 41 72
37719.164062 39269.265625 60281.765625 44 41 72
37911.843750 39290.453125 60314.292969 44 41 72
38102.574219 39309.445312 60343.445312 43 40 71
38294.753906 39329.746094 60374.613281 43 40 71
38489.410156 39352.402344 60409.386719 45 40 73
38684.722656 39375.523438 60444.882812 45 39 75
38878.320312 39396.695312 60477.382812 46 39 73
39080.953125 39426.804688 60523.601562 47 40 72
39291.097656 39464.183594 60580.984375 50 41 71
39514.355469 39514.355469 60658.000000 49 40 68
39758.273438 39584.656250 60765.917969 48 39 67
40023.542969 39675.511719 60905.390625 48 39 65
40317.609375 39794.003906 61087.285156 50 40 66
40629.210938 39928.707031 61294.066406 57 45 69
40940.222656 40061.675781 61498.187500 72 56 80
41251.574219 40193.843750 61701.074219 90 72 94
41586.000000 40347.265625 61936.593750 103 79 101
41940.781250 40519.062500 62200.312500 111 81 100
42333.597656 40725.992188 62517.972656 117 84 101
42738.832031 40943.082031 62851.222656 129 92 107
43130.714844 41145.621094 63162.136719 139 98 112
43520.179688 41344.171875 63466.929688 140 97 107
44060.500000 41683.792969 63988.277344 148 103 113
43411.968750 40900.535156 62785.906250 201 156 164
51500.046875 48321.031250 74177.023438 234 188 194
4113.349121 49576.679688 75772.218750 237 195 198
3648.342285 41773.519531 63845.992188 238 196 199
3308.791260 36081.582031 55146.519531 239 197 200
3064.481445 31898.466797 48753.113281 238 196 199
2889.436279 28768.734375 43969.683594 237 195 198
2777.718018 26504.058594 40508.386719 235 193 196
2733.633057 25040.078125 38270.863281 236 194 197
2772.203369 24416.712891 37318.121094 238 196 199
2862.277344 24276.351562 37103.593750 242 200 203
2973.307617 24317.408203 37166.343750 243 201 204
3085.433594 24364.287109 37237.992188 241 199 202
3190.758057 24356.119141 37225.507812 239 197 200
3295.020264 24340.632812 37201.839844 237 195 198
3398.405273 24319.837891 37170.058594 237 195 198
3500.044678 24288.189453 37121.687500 236 194 197
3599.137939 24241.251953 37049.949219 233 193 195
3696.206055 24183.748047 36962.062500 232 192 194
3796.689453 24151.164062 36912.257812 232 193 192
3900.394043 24140.275391 36895.617188 232 192 194
4003.266602 24124.949219 36872.195312 232 192 194
4101.698730 24084.333984 36810.117188 232 192 195
4196.850586 24026.968750 36722.441406 232 192 197
4285.142578 23934.087891 36580.484375 228 189 198
4369.679199 23825.156250 36413.992188 228 193 205
4457.793457 23740.341797 36284.367188 233 201 218
4551.772461 23689.908203 36207.281250 233 206 226
4645.041992 23638.103516 36128.105469 231 207 229
4742.171387 23607.765625 36081.738281 226 206 229
4842.469727 23594.162109 36060.945312 222 200 221
4943.224609 23583.300781 36044.347656 220 198 217
5042.916504 23567.916016 36020.832031 219 196 215
5143.105957 23555.423828 36001.742188 219 193 211
5244.031738 23546.730469 35988.453125 216 189 207
5345.987305 23542.904297 35982.605469 211 184 202
5448.705078 23542.517578 35982.011719 209 182 202
5551.969238 23544.460938 35984.984375 208 181 201
5656.116699 23550.013672 35993.468750 208 180 203
5761.462402 23560.267578 36009.140625 204 178 200
5867.962891 23574.798828 36031.351562 202 176 198
5975.659668 23593.552734 36060.015625 200 174 196
6084.279297 23615.253906 36093.183594 200 170 193
6193.085449 23636.943359 36126.332031 200 168 189
6302.265137 23659.324219 36160.539062 198 164 184
6412.106934 23683.427734 36197.378906 196 160 178
6523.125000 23711.042969 36239.585938 194 157 173
6634.107910 23737.667969 36280.277344 193 156 169
6742.008301 23752.613281 36303.121094 193 154 167
6849.377930 23765.265625 36322.457031 192 153 164
6955.809570 23774.333984 36336.320312 194 154 163
7061.125977 23779.380859 36344.031250 196 153 161
7166.049316 23782.974609 36349.523438 199 154 160
7272.346680 23790.962891 36361.730469 203 158 162
7367.155762 23761.671875 36316.964844 209 163 167
7473.907227 23771.175781 36331.492188 210 164 167
7595.459961 23826.853516 36416.585938 212 166 169
7724.771484 23905.037109 36536.082031 215 169 172
7866.187988 24018.093750 36708.878906 218 172 175
8005.736816 24122.548828 36868.523438 221 175 178
8202.917969 24395.689453 37285.988281 223 177 180
10403.415039 30543.359375 46681.992188 224 179 182
34543.503906 47942.195312 73274.101562 235 210 222
31881.636719 43981.296875 67220.320312 251 230 242
31520.986328 43223.386719 66061.945312 255 250 255
31772.052734 43308.332031 66191.773438 255 251 255
31818.816406 43115.437500 65896.953125 255 251 255
31850.355469 42904.304688 65574.265625 255 248 255
31942.248047 42776.460938 65378.871094 252 249 255
32033.222656 42648.882812 65183.886719 250 252 255
32114.957031 42510.550781 64972.457031 250 253 255
32212.347656 42394.410156 64794.949219 246 253 255
32326.685547 42301.777344 64653.371094 242 252 255
32432.601562 42199.238281 64496.648438 239 250 255
32529.222656 42085.832031 64323.324219 239 252 255
32625.236328 41972.917969 64150.746094 235 251 255
32729.796875 41872.199219 63996.808594 229 246 255
32842.207031 41782.582031 63859.843750 227 246 255
32947.078125 41684.421875 63709.816406 226 246 255
33050.882812 41586.000000 63559.390625 216 240 255
33160.027344 41495.332031 63420.816406 204 229 255
33275.785156 41413.886719 63296.332031 196 223 255
33394.546875 41337.035156 63178.871094 194 221 255
33512.343750 41259.820312 63060.863281 190 217 255
33628.363281 41181.253906 62940.785156 188 214 255
33741.621094 41100.167969 62816.847656 188 214 255
33854.871094 41019.921875 62694.203125 187 213 255
33974.171875 40947.820312 62584.003906 182 208 254
34083.585938 40864.613281 62456.832031 177 203 249
34192.121094 40781.230469 62329.390625 175 203 248
34301.132812 40699.273438 62204.128906 166 194 239
34408.781250 40616.550781 62077.699219 164 194 239
34518.265625 40536.832031 61955.859375 155 187 231
34615.789062 40443.957031 61813.910156 165 199 243
34698.097656 40334.335938 61646.367188 155 191 234
34781.425781 40227.003906 61482.320312 160 198 241
34878.136719 40136.148438 61343.457031 163 201 246
34978.367188 40050.226562 61212.140625 131 171 216
35054.175781 39937.343750 61039.609375 103 143 190
35121.378906 39815.820312 60853.871094 68 108 155
35199.167969 39707.433594 60688.218750 76 114 161
35298.347656 39624.125000 60560.886719 54 89 137
35418.207031 39564.730469 60470.113281 36 69 120
35548.515625 39517.523438 60397.960938 44 77 128
35686.578125 39479.351562 60339.621094 46 79 130
35829.746094 39447.171875 60290.437500 43 77 125
35978.953125 39421.914062 60251.835938 45 75 122
36136.839844 39406.363281 60228.062500 41 69 114
36298.878906 39395.464844 60211.410156 39 60 105
36466.007812 39390.167969 60203.316406 39 57 99
36638.042969 39390.195312 60203.359375 44 57 96
36814.535156 39394.996094 60210.691406 46 53 89
36995.140625 39404.125000 60224.644531 44 47 82
37177.871094 39415.425781 60241.917969 46 45 78
37367.906250 39434.332031 60270.816406 46 43 76
37565.289062 39460.785156 60311.246094 44 41 72
37763.910156 39488.289062 60353.281250 44 41 72
37957.027344 39509.816406 60386.183594 43 40 71
38147.550781 39528.457031 60414.671875 41 38 69
38340.714844 39549.656250 60447.074219 41 38 69
38538.453125 39575.363281 60486.363281 44 39 72
38737.730469 39602.414062 60527.707031 42 36 72
38933.980469 39626.140625 60563.968750 44 37 71
39143.574219 39663.179688 60620.582031 46 39 71
39367.460938 39714.312500 60698.730469 47 38 68
39608.644531 39782.367188 60802.742188 44 35 63
39870.609375 39870.609375 60937.613281 45 36 64
40154.503906 39979.921875 61104.679688 53 44 70
40451.707031 40101.472656 61290.464844 62 52 78
40766.671875 40239.515625 61501.445312 73 61 85
41089.656250 40384.253906 61722.656250 83 67 91
41409.984375 40525.156250 61938.011719 93 75 97
41728.566406 40663.156250 62148.929688 103 79 101
42076.386719 40828.355469 62401.417969 112 82 101
42446.320312 41013.535156 62684.437500 119 86 103
42825.921875 41206.457031 62979.300781 128 91 106
43201.054688 41393.480469 63265.144531 136 95 109
43553.707031 41557.496094 63515.824219 142 99 109
44065.183594 41871.066406 63995.082031 146 101 111
43468.632812 41133.539062 62867.855469 179 134 142
50248.609375 47353.628906 72374.539062 233 187 193
3172.379883 45602.960938 69395.812500 237 195 200
2795.063232 37815.562500 57545.421875 237 195 200
2532.392090 32358.341797 49240.953125 237 195 200
2367.114990 28654.550781 43604.750000 237 194 202
2321.127197 26692.962891 40619.726562 238 195 203
2347.117432 25706.525391 39118.625000 238 195 203
2406.997803 25164.068359 38293.148438 237 194 202
2482.236084 24822.361328 37773.156250 237 194 202
2568.994385 24619.529297 37464.500000 235 192 200
2657.877686 24452.474609 37210.285156 235 192 200
2752.552002 24349.500000 37053.585938 238 196 201
2852.364990 24297.923828 36975.101562 241 199 204
2955.254150 24275.300781 36940.675781 242 200 203
3059.271973 24263.191406 36922.250000 239 197 200
3163.708496 24255.099609 36909.933594 236 194 197
3266.585693 24235.958984 36880.804688 235 193 198
3367.579590 24204.478516 36832.902344 237 194 202
3469.558350 24181.771484 36798.347656 236 193 201
3573.850830 24176.048828 36789.640625 235 193 198
3676.837891 24162.078125 36768.378906 234 192 197
3778.923096 24143.119141 36739.527344 235 193 196
3883.400146 24140.054688 36734.867188 235 193 196
3987.963135 24137.671875 36731.242188 235 193 196
4088.415283 24111.167969 36690.906250 235 193 198
4185.234375 24065.095703 36620.796875 234 191 199
4276.069824 23987.708984 36503.035156 228 187 199
4361.595703 23884.929688 36346.632812 228 191 206
4450.665527 23805.884766 36226.347656 232 199 216
4546.943359 23768.111328 36168.867188 231 204 222
4640.903809 23720.175781 36095.917969 231 205 225
4737.659180 23688.296875 36047.406250 227 205 226
4837.082031 23670.826172 36020.824219 223 201 224
4937.529785 23658.998047 36002.820312 219 196 222
5037.680664 23646.255859 35983.429688 218 194 220
5138.035645 23634.962891 35966.246094 214 190 214
5239.096680 23627.298828 35954.585938 213 187 211
5341.142578 23624.283203 35949.996094 212 186 208
5443.855469 23624.279297 35949.988281 210 184 206
5547.038574 23626.275391 35953.027344 208 182 204
5651.156738 23632.109375 35961.906250 206 180 204
5756.520020 23642.849609 35978.250000 202 178 202
5863.124023 23658.220703 36001.640625 202 176 200
5971.036621 23678.250000 36032.117188 199 173 197
6080.012695 23701.744141 36067.871094 198 170 193
6189.358398 23725.875000 36104.589844 198 168 189
6299.315430 23751.517578 36143.613281 196 164 183
6410.115234 23779.460938 36186.136719 193 160 177
6522.042480 23810.630859 36233.570312 193 157 173
6633.677246 23839.777344 36277.921875 191 156 168
6741.954590 23856.146484 36302.832031 190 153 166
6849.715332 23870.220703 36324.250000 189 152 165
6956.171875 23879.394531 36338.210938 192 153 164
7061.644043 23884.972656 36346.699219 193 153 162
7166.955566 23889.851562 36354.125000 195 152 162
7272.696289 23896.001953 36363.480469 200 155 163
7366.445312 23863.132812 36313.464844 206 159 168
7472.584473 23870.755859 36325.062500 210 164 170
7592.204590 23920.644531 36400.980469 211 165 171
7717.008301 23985.296875 36499.363281 213 167 173
7853.418945 24083.818359 36649.289062 215 169 175
8034.491699 24314.908203 37000.949219 219 173 177
8039.890625 24015.257812 36544.957031 222 176 180
9284.333008 27376.878906 41660.468750 222 177 181
14671.147461 42713.468750 64998.753906 223 178 184
33913.679688 47853.660156 72820.789062 223 208 223
32379.017578 45409.597656 69101.562500 245 236 250
31779.025391 44298.035156 67410.054688 255 252 255
31529.574219 43685.554688 66478.015625 254 253 255
31506.214844 43391.792969 66030.992188 252 251 255
31577.238281 43230.742188 65785.914062 249 251 255
31672.787109 43104.976562 65594.531250 249 251 255
31745.847656 42950.265625 65359.097656 251 253 255
31830.292969 42812.675781 65149.722656 253 255 255
31928.875000 42695.585938 64971.546875 252 255 255
32037.062500 42592.625000 64814.863281 248 251 255
32149.591797 42496.585938 64668.718750 245 251 255
32268.240234 42409.687500 64536.480469 242 251 255
32382.451172 42317.976562 64396.917969 240 253 255
32487.320312 42215.160156 64240.460938 236 249 255
32588.855469 42109.195312 64079.210938 231 247 255
32697.173828 42013.128906 63933.023438 229 246 255
32814.761719 41929.972656 63806.480469 225 244 255
32923.410156 41836.375000 63664.050781 220 240 255
33031.007812 41742.480469 63521.167969 211 233 254
33143.585938 41655.875000 63389.375000 205 228 255
33261.757812 41577.199219 63269.648438 203 228 255
33382.832031 41502.980469 63156.707031 201 226 255
33500.910156 41425.859375 63039.351562 194 221 255
33616.570312 41346.585938 62918.714844 190 217 255
33731.023438 41266.679688 62797.121094 186 212 255
33847.871094 41190.531250 62681.242188 183 209 253
33971.972656 41123.964844 62579.949219 178 204 248
